ncols         48
nrows         56
xllcorner     293035.91052102
yllcorner     3212444.7030503
cellsize      500
NODATA_value  -9999
1418 1260 1157 985 1087 1431 1526 1268 829 772 942 1121 1607 1919 2173 2374 2661 2759 2229 1790 1336 1557 2077 1610 1707 2063 1993 1924 1911 1406 927 852 1233 1418 1560 1839 1745 1460 1408 1514 1344 1093 753 564 677 1013 1253 1287 
1594 1444 1146 1111 917 1266 1453 958 652 1193 1132 1216 1672 1813 1961 2420 2671 2393 2364 1951 1539 1618 2068 1888 2141 2083 1650 1515 1404 1210 607 1250 1691 1690 2016 2018 1993 1707 1363 1159 1160 745 579 744 932 861 1206 1493 
1857 1531 1351 1282 1034 991 1271 801 925 1437 1677 1370 1461 1688 1965 2304 2618 2555 2552 2308 1822 2087 2325 2202 2159 2036 1916 1620 1335 692 1004 1582 2041 1960 2067 2290 2218 1732 1504 1311 890 566 670 792 1026 1249 1205 1332 
2017 1785 1505 1238 1045 822 1048 639 1076 1620 2026 1763 1451 1823 2158 2244 2490 2679 2137 2073 1851 2374 2329 1933 1919 1774 1541 1420 1110 728 1268 1588 1899 2142 2300 2247 1933 1618 1308 1065 719 604 567 888 899 1171 1508 1575 
2024 1718 1374 1158 1145 861 898 713 1407 1590 1830 2018 1772 1773 2063 2224 2461 2741 2505 2177 1966 1959 2120 1805 1578 1739 1843 1681 1202 603 948 1160 1545 1939 2153 1897 1561 1368 1063 889 741 606 596 1041 1122 1130 1442 1723 
2137 1773 1553 1566 1329 1055 802 917 1466 1790 1873 1968 2043 2149 2204 2167 2518 2867 2372 2085 1852 1628 1650 1933 1814 1342 1443 1367 1197 815 655 813 1261 1655 1517 1491 1284 1062 797 667 645 574 843 1106 1341 1261 1290 1429 
2248 1938 1959 1660 1437 1127 657 1001 1427 1645 1742 1992 2003 2136 2371 2623 2773 2875 2909 2524 2030 1742 1381 1396 1586 1314 1373 1387 1584 1052 596 827 1274 1354 1242 1209 1193 894 792 577 598 713 965 1139 1517 1645 1551 1561 
2495 2267 2004 1755 1426 1078 674 947 1321 1525 1588 1771 1931 2025 2188 2330 2660 2821 2936 2428 2051 1854 1513 1475 1382 1602 1696 1693 1689 1429 708 656 952 1049 1090 1070 946 824 656 578 678 977 1200 1294 1551 1797 1854 1926 
2403 2154 1826 1551 1316 1049 689 903 1186 1370 1403 1540 1714 1890 2043 2243 2351 2611 2779 2261 2067 2020 1984 1829 1654 1568 1896 2078 1873 1668 1194 669 605 815 864 867 754 853 713 620 629 820 971 1289 1433 1629 1876 2019 
2220 2110 1756 1412 1210 901 717 757 946 1090 1254 1394 1521 1697 1847 2086 2324 2521 2660 2569 2274 2125 2272 2152 2147 1830 1936 2198 2142 1824 1420 966 786 622 595 601 758 757 752 696 593 790 1134 1312 1485 1829 1963 2024 
1903 1837 1712 1506 1160 854 678 769 724 848 987 1173 1213 1529 1560 1857 1969 2339 2544 2759 2460 2329 2358 2382 2397 2289 2046 1712 1748 1911 1606 1300 991 964 817 630 696 714 605 667 589 710 834 1061 1425 1492 1691 1947 
1631 1550 1345 1239 957 741 655 950 960 1068 1141 1034 1330 1739 1671 2033 2227 2297 2505 2722 2723 2310 2360 2320 2252 2144 1796 1847 1545 1519 1395 1055 766 691 672 607 634 592 660 595 674 721 961 1272 1449 1574 1715 1953 
1346 1190 1192 1006 679 674 807 1046 1209 1422 1402 1686 1543 1614 1920 2153 2345 2264 2405 2537 2267 2287 1986 2153 2049 1873 1673 1618 1570 1187 1002 981 810 919 789 696 590 643 862 744 759 936 827 1074 1384 1588 1880 2017 
1181 991 983 729 701 843 1100 1310 1318 1593 1996 1859 1741 1580 1753 2037 2313 2537 2491 2285 2419 1978 1813 1811 2083 1947 1902 1901 1894 1466 1077 789 884 1128 1050 920 855 993 821 935 974 929 1114 989 1211 1563 1690 1806 
864 728 704 839 770 975 1198 1441 1490 1700 2211 2089 1784 1641 1730 1963 2222 2372 2509 2036 2009 1939 1891 1611 1787 2066 2061 1787 1590 1184 959 807 1146 1401 1345 1269 1248 1175 1001 1300 1270 985 1128 1216 1411 1553 1607 1577 
668 857 1001 1140 882 872 1161 1397 1705 1892 2163 2270 2022 1810 1808 1884 2034 2227 2464 2249 2128 1955 1875 1644 1418 1831 1953 1673 1201 971 781 1096 1094 1490 1734 1494 1513 1468 1167 1300 1460 1262 1286 1519 1585 1531 1475 1418 
1112 1233 1332 1384 1105 1074 1041 1383 1685 1850 2043 2455 2337 1987 1983 2126 2233 2430 2487 2339 2283 2262 2177 1845 1738 1404 1606 1382 1123 799 893 1191 1548 1602 1917 1820 1788 1616 1391 1340 1602 1579 1476 1685 1435 1435 1380 1405 
1292 1492 1668 1455 1435 1328 1022 1359 1610 1838 1948 2199 2523 2309 2209 2308 2474 2633 2152 2161 2067 2250 2120 1835 1487 1081 1307 1192 967 974 1226 1347 1599 1818 1969 1994 1789 1639 1544 1537 1684 1833 1593 1478 1530 1246 1088 1366 
1638 1534 1905 1715 1656 1353 1141 1430 1658 1857 2053 2190 2530 2420 2453 2122 2185 2305 1908 1873 1716 1829 1628 1489 1368 1255 939 884 878 1081 1154 1142 1324 1589 1807 2026 2044 1937 1645 1640 1925 1819 1648 1356 1210 1224 930 1046 
1925 1804 2033 2021 1652 1553 1218 1347 1570 1696 2023 2256 2391 2249 2124 2095 1820 1876 1939 1999 2042 1787 1424 1173 1210 988 894 918 1115 1012 1103 1277 1252 1511 1603 1732 1956 2162 1870 1906 1955 1722 1441 1353 1290 1193 1116 744 
2102 2031 2256 2029 1727 1686 1388 1454 1463 1670 2000 2294 2453 2320 2163 1926 1778 1746 1887 2034 1998 1583 1379 1065 1004 1096 969 1077 1192 1322 1232 1508 1471 1547 1808 2006 2118 2374 2209 2142 2024 1832 1758 1516 1540 1296 1073 773 
2233 2338 2292 2055 1962 1812 1477 1673 1488 1687 1968 2311 2652 2452 2178 2039 1791 1635 1668 1791 1604 1310 1207 983 1098 1215 980 1119 1422 1563 1396 1707 1870 1621 1886 2080 2402 2326 2221 2012 1686 1732 1724 1755 1625 1265 980 683 
2096 1984 2094 2272 2205 1796 1727 1872 1893 1768 1848 2239 2558 2650 2506 2199 1977 1767 1654 1513 1497 1208 997 974 1323 1144 1095 1061 1261 1550 1770 1905 2031 1919 2043 2214 2393 2284 2065 1997 1796 1529 1462 1546 1616 1346 1070 808 
1848 2043 2031 1951 2089 1959 1782 2075 2220 2092 1951 2038 2438 2752 2373 2068 1799 1609 1489 1337 1358 1129 1134 1255 1391 1263 1380 1168 1041 1409 1503 1769 1995 2279 2276 2388 2314 2133 2157 1776 1617 1540 1345 1163 1269 1219 877 884 
1799 1811 1608 1723 1679 1945 2059 2191 2447 2506 2304 2220 2271 2603 2282 1967 1710 1565 1603 1520 1297 1158 1097 1407 1425 1626 1591 1434 1148 1161 1454 1777 2041 2329 2291 2179 2308 2108 1987 1932 1777 1523 1183 993 906 1082 990 812 
1527 1648 1329 1473 1439 1876 2212 2340 2429 2693 2743 2674 2662 2403 2263 2064 1840 1714 1773 1590 1333 1164 1368 1462 1479 1809 1693 1622 1486 1258 1446 1679 1875 2224 2269 2053 1997 1949 1834 1703 1494 1407 1066 988 1165 893 1053 771 
1327 1285 1178 1201 1350 1625 1942 2335 2631 2697 2985 3044 2615 2269 2137 2054 1941 1831 1692 1314 1231 1228 1502 1624 1707 1953 2029 1729 1418 1445 1294 1633 1934 2240 2221 2015 1770 1740 1684 1525 1456 1219 1125 1158 1151 1002 880 937 
1042 1044 1175 1425 1646 1460 1667 2028 2476 2694 3037 3246 2969 2541 2161 1818 1676 1573 1637 1694 1306 1306 1487 1756 1795 2123 1912 1781 1448 1483 1443 1720 2021 2318 2158 2019 1783 1559 1369 1349 1094 1156 1009 1255 1234 1091 911 1174 
1078 1202 1387 1668 1945 1953 1798 1850 2154 2549 2982 3153 2956 2569 2157 1998 1926 1682 1832 1616 1292 1405 1556 1875 2064 2079 1791 1528 1404 1481 1806 1724 2110 2159 1837 1735 1676 1626 1461 1265 1024 1015 1114 1327 1416 1396 1249 1344 
1117 1093 1295 1520 1809 2103 2198 2185 2148 2492 2862 3163 3105 2874 2595 2282 1962 1951 1941 1621 1288 1462 1757 2007 2224 2057 1841 1450 1628 1545 1888 2029 2194 2083 1894 1691 1544 1310 1268 1107 1207 1323 1172 1479 1686 1592 1447 1105 
1011 1034 1138 1365 1615 1891 2066 2329 2624 2503 3058 3073 3046 2809 2562 2247 2004 1827 1736 1517 1452 1335 1584 1825 1999 2199 1907 1589 1860 1961 2033 2321 2359 2152 2120 1769 1566 1309 1039 1104 1109 1516 1435 1684 1995 1624 1258 1204 
1343 1286 1048 1306 1413 1807 1953 2211 2496 2800 2922 3000 2959 2850 2553 2174 2003 1907 1664 1456 1593 1630 1552 1638 1817 2215 2102 1833 1943 2167 2260 2235 2178 2136 2075 1960 1725 1392 1137 1234 1144 1497 1784 1865 1903 1486 1238 1348 
1747 1576 1342 1264 1237 1677 2102 2280 2556 2881 3025 2868 2815 2583 2537 2436 2044 1796 1586 1551 1544 1777 1754 1730 1954 2317 2091 1779 1897 2222 2214 2121 1869 1909 1943 1641 1524 1389 1078 1267 1225 1274 1490 1957 1906 1612 1405 1399 
1902 1817 1625 1667 1501 1548 1931 2191 2541 2612 2867 2852 2740 2542 2363 2321 2193 1888 1579 1525 1722 1849 2056 1894 2025 2294 2129 2118 2252 2334 2148 1948 1777 1714 1598 1737 1411 1104 1253 1498 1212 1428 1567 1848 1747 1535 1605 1692 
2072 2066 2016 2000 1647 1423 1757 2091 2229 2504 2645 2760 2609 2403 2344 2256 2033 1874 1735 1508 1649 1925 2098 2111 2272 2567 2325 2428 2457 2248 1960 1668 1575 1449 1424 1417 1439 1169 1305 1564 1522 1441 1511 1758 1872 1593 1801 1894 
2074 2327 2345 2169 1811 1518 1644 2020 2175 2275 2360 2569 2488 2359 2143 2136 1948 1752 1627 1534 1687 1849 2117 2436 2577 2730 2666 2450 2238 2149 2008 1925 1682 1764 1517 1378 1327 1171 1148 1383 1707 1416 1468 1681 1973 1831 2003 2100 
1801 2177 2383 2348 2169 1831 1621 1671 2089 2161 2112 2417 2428 2174 2081 1997 1845 1915 1682 1665 1657 1923 2127 2299 2447 2661 2746 2404 2098 1883 1930 1977 1874 1964 1698 1503 1387 1278 1394 1496 1788 1407 1462 1647 1993 2137 2283 1990 
1746 2034 2527 2609 2330 2005 1912 1712 1752 1983 2040 2234 2492 2198 2191 1970 2041 1807 1603 1874 1724 1776 1891 2046 2184 2481 2459 2339 2060 1938 1701 1808 1744 1690 1756 1584 1315 1492 1559 1787 1902 1785 1752 1601 1951 2050 2260 2053 
1930 2136 2440 2867 2639 2310 1895 2046 1796 1739 1907 2128 2428 2426 2310 2143 2136 2092 1770 2097 1971 1877 1856 1984 2051 2303 2080 2146 2097 1800 1623 1698 1591 1422 1355 1354 1362 1511 1734 1786 2082 1994 1956 1640 1754 2055 2347 2162 
2298 2475 2611 2853 2614 2294 2304 2369 2005 1843 1900 2232 2472 2712 2580 2300 2225 2117 1800 1967 2182 2007 2057 2119 2334 2422 2075 1844 1929 1877 1717 1487 1623 1532 1586 1605 1646 1498 1562 1934 2020 2259 1993 1681 1939 2309 2319 2022 
2482 2657 2869 2958 2866 2670 2463 2453 2301 1923 2002 1949 2231 2517 2490 2632 2523 2258 2013 2030 2062 2393 2512 2545 2614 2413 2363 2051 1824 1736 1572 1719 1717 1810 1675 1852 1804 1511 1537 1775 2051 2272 2057 1841 1906 2239 2357 2120 
2271 2532 2694 2824 3023 2980 2797 2636 2349 2035 2079 1975 2000 2116 2271 2591 2588 2222 2322 2305 2135 2207 2535 2860 2523 2240 1983 1918 1774 1815 1895 1756 1844 1936 1852 2023 1947 1789 1611 1887 2223 2190 2229 1877 2148 2334 2280 2067 
2097 2435 2528 2648 2727 2792 2813 2649 2398 2224 2126 2342 2104 1952 2255 2330 2631 2632 2699 2558 2192 2479 2528 2775 2387 2114 2091 1982 1832 2187 2283 1898 1943 2036 2230 2186 2045 1824 1763 2074 2369 2497 2383 2081 2293 2552 2339 2007 
2150 2386 2299 2444 2438 2694 2901 2678 2529 2499 2448 2513 2406 2010 2225 2315 2503 2708 2842 2522 2373 2739 2762 2805 2454 2574 2486 2198 2001 2102 2452 2109 2183 2439 2156 1940 1789 1779 1969 2059 2301 2611 2543 2292 2589 2461 2243 2064 
1999 2161 2134 2219 2531 2812 2965 2972 2709 2760 2561 2740 2368 2165 2154 2284 2615 2833 2953 2940 2755 3058 3187 3099 2848 2975 2669 2455 2255 2517 2445 2102 2275 2568 2148 1932 2099 2039 2036 2449 2268 2453 2709 2697 2882 2547 2300 2073 
2063 2179 2239 2112 2293 2645 2940 3022 2982 2843 2784 2649 2348 2464 2351 2411 2646 2793 2983 3289 3349 3327 3214 3010 2947 3066 3084 2756 2599 2743 2582 2355 2446 2648 2257 2090 2277 2137 1920 2195 2594 2611 2800 3042 2925 2711 2526 2314 
2060 2472 2580 2275 2357 2399 2570 2796 2943 3031 2969 2602 2549 2758 2360 2394 2546 2822 2988 2939 2978 3009 2795 2656 2612 2672 2721 2803 2976 3134 2883 2632 2533 2739 2396 2442 2387 2297 2105 2191 2337 2605 2968 2768 2547 2366 2121 2057 
2282 2357 2664 2511 2436 2577 2768 2942 3005 3155 2995 2783 2941 2615 2742 2728 2896 3148 2830 2593 2607 2641 2627 2394 2342 2450 2395 2401 2630 2728 2915 3023 2907 2849 2638 2637 2482 2170 2453 2348 2550 2799 2793 2450 2254 2021 1984 2053 
2558 2603 2842 2858 2503 2594 2549 2903 3064 3233 3247 3150 2898 2848 3024 3091 3221 3257 2905 2559 2331 2441 2456 2309 2162 2241 2232 2205 2239 2392 2594 2737 2839 2981 2969 2848 2522 2420 2731 2647 2713 2637 2685 2489 2107 1988 1821 2071 
2782 2907 2843 2922 2658 2905 2727 2732 3024 3070 3302 3299 3028 3311 3418 3412 3279 3055 2781 2641 2324 2214 2225 2224 1998 2086 2078 1930 2054 2172 2393 2314 2439 2503 2592 2732 2788 2528 2439 2576 2548 2340 2388 2242 2029 1925 1652 1840 
2954 3111 3179 3112 3057 3126 3023 3077 3104 3408 3411 3544 3422 3638 3483 3314 3131 2844 2703 2580 2238 2172 2005 2074 1937 1832 1892 1831 1880 1918 2001 2079 2181 2241 2313 2539 2597 2227 2263 2283 2252 2311 2272 1969 1844 2016 1660 1573 
2832 3011 3025 3012 3209 3405 3274 3463 3419 3715 3744 3784 3744 3731 3388 3166 2932 2692 2577 2471 2237 2025 1915 1849 1837 1841 1760 1741 1744 1706 1675 1753 1946 1877 2139 2406 2575 2108 2065 1995 2110 1992 1969 1714 1882 2035 1795 1497 
2510 2710 2723 2716 3055 3419 3662 3754 3445 3342 3479 3657 3663 3594 3560 3152 2836 2570 2429 2281 2008 2058 2195 1982 1980 1804 1789 1755 1692 1654 1576 1664 1801 1789 2089 2318 2433 2149 1806 1875 2138 1823 1651 1681 1640 1804 1824 1573 
2086 2250 2426 2808 2983 3159 3505 3701 3454 3166 3249 3337 3400 3307 3400 3231 2881 2488 2305 2137 2208 2208 2239 2252 2175 2049 1853 1892 1816 1931 1748 1578 1596 1634 1893 2118 2325 2217 1755 1616 1782 1558 1403 1663 1455 1539 1384 1280 
2221 2551 2837 2877 3030 3226 3816 3700 3466 3098 2982 3055 3127 3000 3232 3184 2869 2451 2361 2280 2279 2488 2430 2395 2407 2106 2037 1974 1941 1947 1789 1701 1505 1544 1732 1976 2203 2139 1714 1365 1573 1310 1382 1549 1283 1095 1030 989 
2562 2779 2854 3268 3249 3509 3986 3647 3324 3070 2964 2806 2826 2936 3091 2857 2674 2483 2322 2576 2464 2693 2612 2591 2253 2161 2276 1974 1953 1925 1892 1708 1573 1400 1693 1821 1993 2018 1811 1557 1179 1102 1177 1046 1016 1212 1181 1137 
